1199
  1.08714E+00  2.80772E-01  1.33764E+00
  9.97417E-01 -8.01262E-02  1.43425E+00
  9.31550E-01 -3.61485E-02  1.53255E+00
  8.22767E-01 -7.42814E-02  1.48026E+00
  8.59066E-01 -4.19587E-03  1.50987E+00
  7.91800E-01  1.81785E-03  1.72107E+00
  8.21544E-01  6.23428E-02  1.41769E+00
  7.82917E-01  3.18302E-02  1.52620E+00
  8.49393E-01  1.46700E-02  1.57646E+00
  8.24184E-01  4.65372E-02  1.54655E+00
  8.89700E-01  5.16002E-02  1.51192E+00
  8.18090E-01  2.86006E-02  1.47240E+00
  8.26662E-01  2.42228E-02  1.52225E+00
  1.32048E+00  2.73182E-01  9.74577E-01
  1.02548E+00  9.90255E-01  5.79329E-01
  1.06969E+00  7.74684E-01  8.05187E-01
  1.18893E+00 -3.62444E-01  8.52622E-01
  1.13551E+00 -8.99734E-01  7.25546E-01
  1.40765E+00 -7.71660E-01  1.04182E+00
  8.17171E-01 -1.94693E-01  7.28020E-01
  5.94303E-01 -1.68605E-01  1.30207E+00
  7.42761E-01 -5.03020E-02  1.28896E+00
  5.50812E-01  1.31285E-01  1.41624E+00
  6.98973E-01  8.72929E-02  1.20070E+00
  6.85542E-01 -8.21163E-02  1.40571E+00
  8.19959E-01 -3.24594E-01  1.10425E+00
  8.34711E-01 -1.65392E-01  1.00382E+00
  7.04350E-01 -1.39816E-01  1.06525E+00
  7.50429E-01 -1.83544E-01  1.31099E+00
  8.66452E-01 -1.47654E-01  1.29895E+00
  9.42289E-01  2.46615E-01  1.27752E+00
  7.16718E-01  4.60414E-01  1.32052E+00
  8.92572E-01 -5.82691E-02  1.40093E+00
  5.29380E-01 -6.69878E-01  1.27917E+00
  7.84294E-01 -6.45363E-01  9.85691E-01
  1.69782E-01  3.35885E-01  1.54806E+00
  3.77497E-01 -2.07136E-01  1.32068E+00
  4.94042E-01 -8.34442E-02  1.26508E+00
  4.76182E-01  1.64474E-01  1.20936E+00
  4.48556E-01 -9.20993E-02  1.30207E+00
  4.05220E-01  1.39660E-01  1.40256E+00
  5.21315E-01 -3.20779E-01  1.17146E+00
  2.74485E-01  1.76351E-01  1.36726E+00
 -5.44667E-01 -2.58484E-01  1.58161E+00
 -1.78733E-01  6.76286E-02  1.57515E+00
  2.74567E-01  1.30271E-01  1.64171E+00
  2.53331E-01 -8.89116E-02  1.59425E+00
  2.65728E-02 -1.35126E-01  1.58572E+00
  7.88583E-01  6.66083E-01  1.20279E+00
  7.81870E-01  7.04441E-01  9.53737E-01
  8.92214E-01  4.90698E-01  1.03712E+00
  4.57342E-01  4.43871E-01  1.04386E+00
  7.72372E-01  7.14068E-01  1.69515E+00
  3.34602E-01  8.06356E-01  1.43720E+00
  6.67819E-01  1.00974E+00  1.40782E+00
  4.54122E-01  9.70055E-02  1.03220E+00
  2.97866E-01  9.79906E-02  1.04089E+00
  3.74569E-01  1.22797E-01  1.17143E+00
  4.20271E-01  2.69797E-01  1.49224E+00
  4.59507E-01  5.85732E-01  1.45767E+00
  3.38755E-01  4.08688E-01  1.25949E+00
  7.47412E-01  2.14653E-01  1.82826E+00
  4.50959E-01  1.29412E-01  1.84251E+00
  5.15129E-01  8.48582E-02  1.72476E+00
  8.50009E-01 -8.26601E-02  1.86190E+00
  5.62248E-01 -1.43183E-01  1.91765E+00
  6.90176E-01 -7.29565E-02  1.75009E+00
  5.44536E-01 -2.11757E-03  1.84971E+00
  5.51856E-01 -1.36418E-02  1.53854E+00
  6.16048E-01  1.26836E-02  1.50222E+00
  6.26316E-01 -5.43492E-02  1.66482E+00
  7.58768E-01 -7.13047E-02  1.60875E+00
  6.40811E-01 -1.86712E-01  1.67292E+00
  7.03427E-01 -1.41250E-01  1.52659E+00
  7.00569E-01  1.13299E-01  1.68594E+00
  6.05736E-01  1.34444E-01  1.68010E+00
 -1.75127E+00  7.17142E-02  1.74556E+00
 -1.57320E+00 -1.65793E-02  1.47263E+00
 -1.78690E+00  4.25939E-02  9.86758E-01
 -1.58568E+00 -2.87654E-01  1.06885E+00
 -6.62199E-01 -4.41039E-01  1.99559E+00
  2.66252E-02 -3.70674E-01  2.71151E-01
  1.80592E-01 -5.50360E-01  1.13380E-01
 -4.56947E-01 -4.29880E-01  5.57182E-01
  3.87124E-02 -5.86799E-01  3.29479E-01
 -2.07632E-01 -4.52023E-01  4.66823E-01
  1.80278E-01 -3.89223E-01  4.28112E-01
 -1.02362E-02 -3.02166E-01  5.88916E-01
 -6.44002E-02  2.31516E-01  6.15807E-01
  9.54150E-01 -6.30079E-01  1.77531E+00
  8.43022E-01 -2.09096E-01  1.71673E+00
  1.16215E+00 -2.58544E-01  1.80894E+00
  8.19256E-01 -7.79328E-02  1.58145E+00
  9.15707E-01 -1.96248E-02  1.62764E+00
  1.02410E+00 -1.40688E-01  1.76460E+00
  1.07818E+00  2.31646E-09  1.55575E+00
  9.41102E-01  1.33658E-01  1.69916E+00
  9.61348E-01  1.94626E-02  1.81161E+00
  7.94045E-01  2.88978E-01  1.49987E+00
  7.12860E-01  1.05574E-02  1.52345E+00
  7.76066E-01 -7.68760E-03  1.52106E+00
  6.48698E-01  1.05460E-02  1.63010E+00
  6.65143E-01 -5.67518E-02  1.56099E+00
  7.24704E-01  5.92968E-02  1.63392E+00
  6.53921E-01  4.28076E-02  1.55943E+00
  7.34157E-01 -2.85013E-02  1.57690E+00
  8.20416E-01 -4.19307E-02  1.55063E+00
 -9.09113E-01  9.63008E-02  2.49886E+00
 -1.23082E+00  1.31110E-01  1.86455E+00
 -1.54077E+00 -2.41936E-02  2.43111E+00
  2.80667E-01 -4.16742E-01  1.84439E+00
  6.71631E-01 -5.09811E-01  2.28579E+00
  4.21059E-02  9.32170E-03  1.85394E+00
  8.86555E-02  4.22390E-01  1.93010E+00
  1.75925E+00  3.19794E-01  1.85081E+00
  1.98641E+00  5.25277E-01  2.20074E+00
  1.77399E+00  8.50152E-01  1.88102E+00
 -7.01072E-01  1.16290E+00  2.30506E+00
 -2.53679E-01  9.38655E-01  1.94002E+00
 -3.50174E-01  1.22259E+00  2.44822E+00
  1.41209E-01  1.01890E+00  1.55766E+00
  3.78421E-01  8.45330E-01  1.93254E+00
  5.84804E-01  1.02197E+00  2.43443E+00
 -1.70311E+00 -3.60313E-01  1.96551E+00
 -1.44798E+00  2.40227E-02  2.77743E+00
 -1.25701E+00 -5.81959E-01  2.14667E+00
 -1.47652E+00 -7.90972E-01  2.27326E+00
 -1.24295E+00 -2.79281E-01  2.43363E+00
 -1.49581E+00 -7.04506E-01  2.75039E+00
 -4.47405E-01 -3.58466E-01  2.59782E+00
 -1.07904E+00 -9.55856E-01  1.77014E+00
 -7.21525E-01 -8.87960E-01  1.85832E+00
  5.99818E-01 -3.61319E-01  1.79809E+00
  1.07294E+00  1.79477E-01  2.75710E+00
  1.89056E+00 -6.20867E-01  2.67839E+00
  1.13699E+00 -3.63891E-01  2.61463E+00
  1.41325E+00 -6.24847E-01  2.73054E+00
  1.63251E+00 -6.26051E-01  2.13730E+00
  1.94350E+00  2.74778E-02  2.33038E+00
  1.97044E+00 -7.57369E-02  1.97615E+00
  1.53553E+00 -2.75407E-01  2.51775E+00
  1.79241E+00 -3.77849E-01  2.81724E+00
  1.98607E+00 -1.87914E-01  2.74813E+00
  6.97318E-01 -1.03280E+00  2.13585E+00
  4.02209E-01 -9.26074E-01  2.37191E+00
  2.13004E+00 -1.18261E+00  8.80118E-01
  1.52442E+00 -9.26921E-01  5.96743E-01
  1.29915E+00  5.70951E-01  2.49116E+00
  9.62261E-01  2.15766E-01  2.20211E+00
  1.45116E+00  2.80866E-01  2.30451E+00
  5.61736E-01 -2.12621E-01  2.74572E+00
 -8.82393E-01 -9.79720E-01  1.22401E+00
 -4.79052E-01 -9.25959E-01  9.10181E-01
 -1.47243E+00 -8.71100E-01  2.65188E-01
 -6.49960E-01 -6.71145E-01  2.80488E-01
  4.69297E-01 -6.59303E-01  8.84555E-01
  3.78212E-01 -4.97938E-01  1.15905E+00
  3.85302E-01 -1.36490E-01  1.19657E+00
  5.37557E-01 -1.34798E-01  1.10730E+00
  6.42200E-01 -3.90361E-01  7.32973E-01
  3.86482E-01 -1.39282E-01  6.76101E-01
  2.59365E-01 -3.68867E-01  7.29944E-01
  4.13022E-01 -1.12642E-01  3.53816E-02
  5.08170E-01 -1.28806E-01  5.95918E-02
  3.22255E-01 -1.05811E-01  3.99265E-02
  2.48074E-01 -1.09899E-01  1.75175E-01
  2.13749E-01 -1.10053E-01  4.63803E-02
  3.05186E-01 -1.89941E-01  6.57402E-02
  4.87026E-01 -3.02254E-01  3.18995E-01
  3.41608E-01 -1.13619E-01  4.32968E-01
  2.91944E-01  1.26644E-01  2.37267E-01
  2.85030E-01  1.20575E-01  6.31273E-02
  1.53055E-01  1.32397E-01  5.88506E-02
  1.83066E-01  1.20318E-01  2.93875E-01
  2.40733E-01  1.71711E-01  1.49127E-01
  1.89232E-01  2.84500E-01  3.70680E-01
  4.38622E-01  1.89083E-01  4.18283E-02
  5.07660E-01  1.31062E-01  4.45108E-02
  5.20363E-01  9.82830E-02  1.84973E-01
  5.30505E-01  2.21038E-01  7.54259E-02
  4.32153E-01  9.70420E-02  7.21182E-02
  5.01029E-01 -3.06154E-01  1.37270E+00
  7.81352E-01 -3.36108E-01  1.44614E+00
  6.31025E-01 -5.12159E-01  1.40172E+00
  6.53262E-01 -2.17409E-01  1.40937E+00
  5.51118E-01 -9.67221E-02  1.45055E+00
  4.64300E-01 -1.96393E-01  1.56726E+00
  5.01039E-01 -1.95787E-01  1.39635E+00
  3.52188E-01 -7.10701E-02  1.36559E+00
  4.86991E-01  7.88355E-02  1.51190E+00
  4.88742E-01 -3.85349E-02  1.52233E+00
  3.78717E-01 -5.72378E-02  1.69505E+00
  4.12540E-01  3.46121E-02  1.67806E+00
  5.41878E-01 -2.26513E-02  1.63453E+00
  3.36551E-01 -1.07300E-01  1.49811E+00
  4.23265E-01 -9.21552E-02  1.47775E+00
  4.52900E-01 -4.42726E-02  1.59398E+00
  5.33904E-01 -1.29027E-01  1.67015E+00
  1.09023E+00 -1.06537E-01  5.08270E-01
  9.34260E-01 -2.72343E-01  1.80153E-01
  3.84841E-01 -3.46142E-01  1.00410E-01
  6.65141E-01 -2.10015E-01  8.14974E-02
  8.23893E-01 -1.37831E-01  8.00239E-02
  6.07756E-01  1.29029E-01  1.58503E+00
  5.75257E-01  4.43740E-02  1.58837E+00
 -1.53622E-01 -2.11187E-01  5.42189E-01
 -1.52570E-01  8.54776E-02  5.51879E-01
 -4.56508E-01 -1.41778E-01  4.84768E-01
 -5.94534E-01  7.70898E-01  2.44567E-01
 -1.55125E-01  6.23024E-01  1.25157E-01
 -1.80805E-01  3.74987E-01  4.74737E-02
  3.26808E-02  1.75081E-01  2.30411E-01
  2.43896E-02  1.53987E-01  5.73216E-01
  2.01287E-01  2.19270E-01  5.33071E-01
 -2.45731E-03 -1.60327E-01  4.41878E-01
  1.27388E-01 -1.40434E-01  3.75174E-01
  1.16627E-01  2.25195E-01  5.71813E-01
  5.69366E-02 -2.76171E-01  5.08426E-01
 -4.27131E-01  6.22201E-02  5.42640E-02
 -3.41577E-01 -1.24606E-01  5.81709E-02
 -3.36307E-01  8.57570E-02  1.07350E-01
 -4.27888E-01 -6.14028E-02  4.25697E-02
 -5.16138E-01 -1.47558E-01  5.11744E-02
 -4.22110E-01 -1.31310E-01  3.27519E-02
 -5.76712E-01  2.09387E-01  1.47607E-01
 -5.98487E-01  1.68681E-01  6.88965E-02
 -4.72097E-01  1.21354E-01  1.24590E-01
 -5.41064E-01  1.24587E-01  4.89318E-02
 -5.78373E-01 -2.83542E-02  5.23369E-02
 -5.08454E-01 -7.31922E-03  5.42640E-02
 -5.25584E-01 -5.93929E-02  2.65081E-02
 -5.14389E-01  4.22562E-02  3.10628E-02
 -5.10722E-01 -3.68644E-01  5.79067E-02
 -4.96874E-01 -2.99665E-01  1.77333E-01
 -3.76471E-01 -1.69066E-01  2.37046E-01
  8.87126E-01 -3.28490E-02  2.23783E+00
  1.11273E+00  2.52429E-01  2.49849E+00
  1.26676E+00 -3.17653E-02  2.44018E+00
  1.20990E+00 -2.37131E-01  2.08191E+00
  1.02978E+00 -2.86369E-01  2.37902E+00
  2.11084E+00 -2.01842E-01  2.27809E+00
  1.90919E+00 -3.25996E-01  2.49968E+00
 -1.50461E+00 -6.57493E-01  1.74954E+00
 -1.43666E+00 -1.05530E+00  1.46503E+00
 -1.29818E+00 -5.62464E-01  1.17320E+00
 -3.84428E-01  8.36487E-02  4.94933E-01
 -3.54497E-01  5.22085E-02  3.15877E-01
 -2.11539E-01  1.24725E-01  3.64781E-01
 -2.49096E-01  1.82172E-01  2.80739E-01
 -7.82002E-02  8.60620E-02  2.79446E-01
 -3.17470E-01  2.81761E-01  4.66504E-01
 -3.90611E-01  7.66851E-01  5.21617E-01
 -3.42182E-01  5.28552E-01  2.82687E-01
 -2.30646E-01  1.34526E-01  6.01230E-02
 -3.09147E-01  1.37461E-01  3.31557E-02
 -4.96154E-01  3.65576E-02  1.79660E-01
  1.75628E-01  3.11615E-01  2.06580E-01
  1.98736E+00  9.84771E-01  1.10832E+00
  2.37815E-01  1.02443E+00  8.02486E-01
  7.94398E-01  1.07473E+00  8.25308E-01
  8.04755E-01  6.52628E-01  2.39119E-01
  3.55628E-01  1.73539E-01  5.62571E-02
  5.81324E-01  2.74607E-01  2.94086E-01
  6.72764E-01 -2.30989E-02  5.92069E-02
  5.87240E-01 -6.25461E-02  2.90790E-02
  6.34689E-01 -1.11808E-01  1.34603E-01
  6.12144E-01 -2.45765E-01  4.14888E-01
  8.48623E-01  5.53070E-02  7.06828E-02
  7.78812E-01 -3.72780E-02  7.31340E-02
  6.26492E-01  1.90151E-01  9.16459E-02
  6.23708E-01  4.82093E-02  6.71616E-02
  5.77445E-01  1.71359E-01  4.82761E-01
  3.41951E-01  1.17646E-01  4.23800E-01
  4.69309E-01  2.25587E-01  3.68003E-01
  4.29961E-01  7.80831E-02  2.86132E-01
  4.65905E-01  4.05789E-02  3.83028E-02
  4.00843E-01 -1.36679E-01  1.40430E-01
  4.02052E-01 -1.36019E-01  2.53789E-01
 -7.50080E-02  1.83640E-01  4.38553E-01
  4.78066E-01 -6.77258E-01  5.10295E-01
  9.26718E-01 -6.89448E-01  5.39717E-01
  5.16737E-01 -6.49120E-01  1.77917E-01
  2.27275E-02 -2.49764E-01  2.64280E-01
 -7.98079E-02 -1.23076E-01  3.26495E-01
  1.89573E-01 -3.20136E-01  9.76651E-02
  7.44824E-02 -2.04881E-01  4.62141E-02
 -2.12522E-03 -1.04914E-01  1.37564E-01
  1.75923E-02 -1.37841E-01  6.72352E-02
  2.07510E-02 -2.87178E-01  6.98010E-02
 -7.51164E-02 -1.70433E-01  9.54183E-02
  2.09223E-02  7.52975E-02  5.72191E-02
 -3.15300E-04  1.04201E-01  1.37429E-01
 -2.13188E-01 -2.37133E-01  2.46914E-01
 -1.30379E+00  3.59144E-01  2.37057E+00
 -1.82239E-01 -2.70295E-01  1.31314E-01
 -2.21724E-01 -3.59988E-01  7.08088E-02
 -1.95152E-01 -7.75760E-02  6.91838E-02
  1.23269E-01 -4.68453E-01  5.47521E-02
  2.42304E-01  4.81249E-01  6.73467E-01
 -1.45217E-02  1.78262E-01  7.83131E-01
  1.07767E-01  1.39569E-01  7.57753E-01
  1.74798E-01  3.29721E-01  8.16376E-01
  2.89831E-01  8.73426E-02  8.40761E-01
  3.14164E-01  2.85928E-01  1.03198E+00
  1.28636E-01  1.95544E-01  1.22408E+00
 -1.22065E-01 -2.57214E-01  1.09532E+00
 -6.65823E-02  2.39631E-01  9.67760E-01
 -1.84527E-01  7.47255E-02  9.75085E-01
  1.32604E-01  9.50996E-02  9.85197E-01
 -3.45419E-02  9.49813E-02  8.79239E-01
 -7.12268E-02 -8.26302E-02  8.50961E-01
 -9.45221E-02 -1.36602E-01  6.92339E-01
 -2.97987E-01 -1.69436E-01  7.58915E-01
  8.18386E-02  1.28631E-01  9.40119E-01
  1.97028E-01  1.00183E-01  9.02107E-01
  2.15660E-01 -5.54572E-01  1.12763E+00
  1.02860E-01 -7.05011E-01  1.41475E+00
  2.81699E-01 -2.26499E-01  9.50376E-01
  7.29760E-01 -1.02576E+00  1.69630E+00
  6.49571E-01 -6.78479E-01  1.76934E+00
 -8.20375E-02 -5.89150E-01  1.93387E+00
  3.15538E-02 -9.79421E-02  1.09616E+00
 -1.69764E-01 -9.39893E-02  1.36669E+00
  2.19933E-01 -1.32052E-01  1.19663E+00
  1.54872E-01 -3.00302E-01  1.10191E+00
  2.24589E-01 -8.03220E-02  1.00819E+00
  1.49409E-01 -2.30927E-01  9.65884E-01
  2.24318E-01 -2.48897E-01  1.41188E+00
  1.51777E-02 -3.39910E-01  1.27236E+00
  1.73920E-01 -6.25053E-04  1.23244E+00
  1.44058E-01  2.49813E-02  1.44194E+00
 -2.28987E-03 -1.62854E-01  1.29132E+00
  1.21237E-01 -2.17993E-01  1.29111E+00
 -1.27866E-01 -3.78137E-01  1.63152E+00
  1.54027E-01 -2.45432E-01  1.72012E+00
  5.45216E-01 -3.40557E-01  1.58629E+00
  2.53077E-01 -4.68495E-01  1.49049E+00
  4.90157E-01  2.03194E-01  1.56969E+00
  5.35371E-01  1.47838E-01  1.57112E+00
  4.72091E-01  6.12316E-02  1.61457E+00
  2.94001E-01  8.16685E-02  1.53024E+00
  3.78663E-01 -4.46483E-02  1.53024E+00
  3.89540E-01  1.79895E-01  1.54656E+00
  4.54360E-01  1.20274E-02  1.51772E+00
  4.30477E-01 -1.20273E-02  1.49845E+00
  4.11095E-01  9.41565E-03  1.51344E+00
 -3.12382E-01  8.87142E-01  2.66799E+00
 -7.90545E-01  5.48784E-01  2.46562E+00
 -6.67788E-01  7.65970E-01  2.02623E+00
 -4.07286E-02  3.31577E-01  2.68472E+00
  1.92427E-01  9.57894E-01  2.11881E+00
 -1.17988E+00  9.82522E-01  2.02800E+00
 -1.08369E+00  7.07150E-01  2.57280E+00
 -2.79130E-01 -5.35389E-01  1.31748E-01
  1.21139E+00 -9.49705E-01  2.35642E+00
  1.20672E+00 -5.34166E-01  2.22537E+00
  1.24510E+00 -7.08607E-01  1.94948E+00
 -1.31689E-01  7.71687E-01  1.01797E+00
  1.50925E-01  5.93404E-01  9.41106E-01
 -3.77827E-01  4.89798E-01  8.07031E-01
  7.45753E-02  4.34753E-01  1.08155E+00
  2.39520E-02  6.04093E-01  1.40410E+00
  2.33976E-01  5.92792E-01  1.27791E+00
  1.61274E-01  3.46935E-01  1.19635E+00
  7.60868E-02  3.18836E-01  1.35487E+00
 -1.86513E-01  1.25247E-01  1.29046E+00
  1.94227E+00 -7.96284E-01  2.27868E+00
  1.39675E+00 -4.60250E-01  4.77178E-01
  1.52502E+00 -1.31556E-01  3.45344E-01
  1.01348E+00 -9.58366E-02  1.92102E-01
  1.30541E+00  1.60656E-01  2.43347E-01
  8.07012E-01  1.01866E-01  2.37937E-01
  7.72352E-01  6.16379E-03  3.81404E-01
  6.91659E-01 -5.62889E-02  3.46022E-01
  5.10870E-01 -6.52668E-02  2.68763E-01
  8.01096E-01 -1.77898E-01  2.61984E-01
  7.16861E-01  7.18829E-02  1.93014E-01
  6.21540E-01  3.03878E-02  2.37040E-01
  5.69818E-01 -4.38492E-03  1.34603E-01
 -2.93262E-01  2.15232E-01  1.11313E-01
 -1.96959E-01  1.56976E-01  1.17402E-01
 -9.13032E-02  4.75687E-01  8.16149E-02
 -1.05595E-01  3.42595E-01  8.15235E-02
 -2.43928E-01 -9.34507E-02  2.91690E-01
 -1.48392E-01  9.35702E-02  2.09191E-01
 -1.24866E-01 -1.46243E-01  1.66046E-01
 -1.33478E-01 -1.70483E-01  2.54053E-01
  1.00515E+00 -7.04810E-01  1.31456E+00
  1.33990E+00 -1.23460E+00  1.82710E+00
  1.11900E+00 -1.23604E+00  2.09875E+00
  1.50475E+00 -9.43357E-01  1.80865E+00
  2.07973E+00 -5.38846E-01  1.27085E+00
  1.47601E+00 -3.66320E-01  1.54470E+00
  1.68913E+00 -1.04675E+00  1.34435E+00
  2.23019E+00 -9.43022E-01  1.68031E+00
 -4.33578E-01 -1.29481E-01  1.10673E-01
 -5.13605E-01 -4.77370E-02  1.42438E-01
 -4.44323E-01 -9.42192E-02  2.27262E-01
 -3.16657E-01 -1.83007E-01  1.51456E-01
 -3.92078E-01 -2.69886E-01  1.16667E-01
 -2.63692E-01 -7.50045E-02  1.09785E-01
 -1.69859E-01 -1.45636E-01  1.07882E-01
 -2.66023E-01 -2.70494E-01  5.96762E-02
 -3.08806E-01 -1.93157E-01  4.53769E-02
 -2.94854E-01  5.53141E-01  1.33231E-01
 -2.75919E-01  4.55360E-01  7.40725E-02
 -5.05830E-01  4.00138E-01  1.20987E-01
 -3.19729E-01  2.93454E-01  4.69985E-02
 -2.11675E-01  3.74661E-01  1.88314E-01
 -4.91406E-01 -4.53270E-02  3.49714E-01
 -4.30958E-01  2.70202E-02  2.57900E-01
 -3.24224E-01 -7.90822E-02  1.56046E-01
 -4.23784E-02  3.89453E-01  2.22140E-01
 -1.04038E-01  1.60763E-01  1.55359E-01
 -9.51489E-02  7.80794E-02  5.35846E-02
 -4.28779E-02  1.41961E-01  3.38964E-02
  2.13628E+00  6.01069E-01  1.04899E+00
 -6.69192E-01 -3.33871E-01  5.62401E-02
 -5.40350E-01 -2.67419E-01  1.06463E-01
 -5.61496E-01 -2.02771E-01  4.66088E-02
 -7.99567E-01 -2.56906E-01  3.89031E-01
 -5.81876E-01 -2.30127E-01  2.77131E-01
 -8.00136E-01 -2.52547E-01  4.76304E-02
 -6.66708E-01 -2.06027E-01  5.57789E-02
 -6.40066E-01 -1.56681E-01  1.63358E-01
 -7.21840E-01 -2.91185E-01  1.85411E-01
 -8.00000E-01 -1.94890E-01  1.96982E-01
 -1.09453E+00 -6.07967E-01  3.04917E-01
 -1.20104E+00 -3.26685E-01  2.50203E-01
 -1.04255E+00 -3.55952E-01  8.16185E-01
 -9.09240E-01  7.26504E-01  1.41265E+00
 -1.12328E+00  2.78520E-01  7.46722E-01
 -4.65628E-01  1.82134E-02  8.68619E-01
  1.08380E+00 -7.59890E-01  2.61463E+00
  7.90116E-01 -7.60107E-01  2.47901E+00
  1.55466E+00 -1.11105E+00  2.24990E+00
  1.39775E+00  1.21548E+00  1.77298E+00
  1.42132E+00  9.54589E-01  2.04966E+00
 -1.46182E+00 -5.44687E-01  4.17181E-01
 -1.61190E+00  1.08478E-01  6.80945E-01
 -7.40886E-01  3.86858E-01  1.29245E+00
 -9.49144E-01  3.48973E-02  1.09177E+00
 -6.16086E-01 -1.44130E-01  1.25452E+00
 -8.38632E-01 -5.79346E-01  1.30921E+00
 -4.91680E-01 -4.31558E-01  8.56947E-01
 -5.19652E-01 -2.02137E-01  1.00700E+00
 -7.68279E-01 -2.03845E-01  8.55714E-01
 -5.74919E-01 -6.92331E-01  1.09729E+00
 -1.08853E+00 -8.85963E-02  1.37347E+00
 -1.34048E+00  2.28510E-01  1.10792E+00
 -1.46642E+00 -6.47451E-01  7.43026E-01
 -1.12767E+00 -1.01248E+00  9.46865E-01
 -1.77379E+00 -9.11513E-01  1.26198E+00
 -1.51938E+00  4.91288E-01  6.35822E-01
 -1.40140E+00 -3.01859E-01  5.99758E-01
 -1.30689E+00  5.51521E-01  9.35870E-01
 -1.07440E+00  6.91419E-01  3.78252E-01
 -1.33377E+00  4.39703E-01  4.21790E-01
 -1.47822E+00  8.13124E-01  5.85681E-01
 -9.72272E-01 -6.61681E-01  2.47959E+00
 -7.28241E-01  1.09980E+00  5.94670E-01
 -7.86831E-01 -4.86967E-01  2.83111E-01
 -9.23499E-01 -6.26736E-01  7.33071E-01
 -1.07889E+00  8.19213E-02  3.15169E-01
 -9.15987E-01 -5.71416E-02  1.96982E-01
 -7.69572E-01 -4.67548E-02  2.09314E-01
 -8.88576E-01  4.39943E-01  1.43679E-01
 -8.73123E-01  2.77217E-01  1.33902E-01
 -9.53461E-01  1.16866E-01  1.35013E-01
 -4.19348E-01  3.15063E-01  1.81653E-01
 -3.73940E-01  1.84144E-01  6.90195E-02
 -4.69117E-01  3.15532E-01  6.41004E-02
 -4.63582E-01  1.95532E-01  3.66062E-02
 -6.67185E-01  3.35319E-01  7.59316E-02
 -5.15258E-01  1.30833E-01  2.83600E-01
 -3.87695E-01  1.45925E-01  1.84558E-01
 -7.05333E-01  3.48086E-01  5.15243E-01
 -9.79468E-01  2.48005E-01  4.09012E-01
 -9.66233E-01  5.95087E-01  7.97811E-01
 -5.67768E-01  4.86040E-02  3.41367E-01
 -9.17099E-01 -5.06770E-04  3.82788E-01
 -8.95955E-01 -7.06746E-02  5.71751E-01
  3.07786E-01 -1.24759E+00  2.49746E-01
 -3.62743E-02 -6.12091E-01  8.91865E-02
 -4.14285E-01  9.11052E-01  1.50481E+00
 -4.38895E-01  2.93598E-01  1.23185E+00
 -3.60012E-02  4.37045E-01  1.29909E+00
 -1.99829E-01  7.65983E-01  1.29731E+00
 -2.50252E-01  6.01951E-01  1.52876E+00
 -1.31476E-01  4.00448E-01  1.12679E+00
  1.60516E+00  3.91540E-01  1.37714E+00
  1.49840E+00  6.19689E-01  3.07160E-01
  1.19778E+00  5.42883E-01  5.35098E-01
  1.60809E+00  2.39809E-01  6.94768E-01
  2.11272E+00  1.14315E-01  1.18226E+00
  2.08478E+00  9.70016E-02  7.84941E-01
  1.94892E+00 -7.93369E-01  9.17026E-01
 -1.38912E+00  4.37613E-01  1.57589E+00
 -1.06789E+00  1.02494E+00  1.64502E+00
 -8.39347E-01  6.33473E-02  9.04897E-02
 -7.22713E-01 -1.42810E-01  6.71617E-02
 -6.93234E-01 -6.44402E-02  1.32336E-01
 -6.73082E-01  5.12181E-04  3.82316E-01
 -7.41355E-01  2.49202E-01  3.34420E-01
 -6.36404E-01  9.21118E-03  2.44483E-01
 -5.40736E-01 -9.51507E-02  2.65753E-01
 -5.59868E-01 -1.51330E-02  2.59064E-01
 -6.14396E-01 -7.21293E-02  1.46794E-01
 -6.15127E-01  9.46033E-02  2.72029E-01
 -6.53571E-01  1.43280E-01  1.37001E-01
 -5.88133E-01  4.44395E-02  1.32962E-01
 -7.17984E-01  5.88497E-02  1.52746E-01
 -6.55042E-01 -9.69204E-02  5.28853E-02
 -6.80929E-01 -2.63843E-02  5.19255E-02
 -6.21124E-01  4.38103E-02  5.06033E-02
 -6.04131E-01 -1.06809E-02  1.12126E-01
  1.99774E+00 -5.45724E-01  4.24380E-01
  1.67519E+00 -6.29849E-02  6.39445E-01
  1.77475E+00 -2.34500E-01  1.06485E+00
  1.64504E+00 -4.69268E-01  3.04619E-01
 -4.88182E-01  1.05303E+00  1.07065E+00
 -6.75154E-03  1.18754E+00  1.06620E+00
 -9.93495E-02  1.02260E+00  8.01974E-01
  6.97754E-02  9.24053E-01  1.26197E+00
  1.41123E+00  5.82005E-01  8.13511E-01
  1.75501E+00  7.63070E-01  9.12579E-01
  1.57704E+00  9.72386E-01  7.01425E-01
 -1.34656E+00 -8.86182E-02  4.05489E-01
 -1.24412E+00  3.19956E-01  1.98492E-01
  2.07882E-01 -7.57675E-01  9.31744E-01
 -6.84953E-02 -8.27890E-01  5.01259E-01
  1.73783E+00  2.11693E-01  1.05564E+00
  2.02269E+00  3.22016E-01  6.18100E-01
 -4.33686E-01 -5.05293E-01  1.33834E-01
 -1.46236E-01  2.97911E-01  2.81547E-01
  5.36554E-02  2.90583E-01  2.17701E-01
 -4.54153E-01  1.17851E-01  2.96499E-02
 -2.89173E-01 -5.81017E-02  2.28681E+00
 -6.52977E-01 -1.17334E-01  2.22004E+00
 -3.75770E-01  3.17296E-01  2.48747E+00
 -5.51611E-01  3.54111E-01  1.86440E+00
 -2.46381E-01 -9.14378E-02  1.79456E+00
 -5.77199E-01  1.19283E-01  1.61004E+00
  1.05199E-01 -1.59022E-01  2.34025E+00
  3.22651E-01 -4.88932E-01  2.33236E+00
 -2.05880E-01 -7.83971E-01  2.30347E+00
  9.19249E-02 -3.60022E-01  2.57457E+00
  3.74736E-01 -4.67364E-01  2.72000E+00
 -2.18160E-02 -1.20320E+00  1.17241E+00
 -1.13638E-02 -7.98865E-01  1.09644E+00
 -1.69489E-01 -8.41814E-01  1.47663E+00
 -4.44560E-01 -8.11973E-01  1.38643E+00
  3.78645E-01 -7.27525E-01  1.84999E+00
  3.98591E-01 -1.14423E+00  1.73539E+00
  2.57018E-01 -8.97797E-01  1.57170E+00
  1.43051E-01 -1.04841E+00  2.11819E+00
  5.39388E-01  2.74166E-01  1.72828E+00
  3.49623E-01  5.41335E-01  1.99645E+00
  9.99363E-01  5.50824E-01  1.99541E+00
  5.27073E-01  6.41938E-01  2.77028E+00
  4.60810E-01  5.25256E-01  2.34716E+00
  6.34441E-01  6.15430E-01  2.08922E+00
  8.89464E-01  7.97711E-01  2.42955E+00
 -1.48582E-01  4.92924E-01  2.28863E+00
  5.72623E-01  7.53287E-02  6.30557E-01
  4.80834E-01  1.23604E-01  8.04897E-01
  4.61108E-01  1.24014E-01  5.68890E-01
  3.84404E-01  1.06866E-01  6.68104E-01
  5.97961E-01 -1.99138E-01  7.15009E-01
  9.35189E-01  1.65309E-01  7.91856E-01
  6.73746E-01  1.03652E-01  8.03542E-01
  5.48225E-01  2.73016E-01  7.70749E-01
  4.56125E-01 -1.88977E-01  4.70069E-01
  2.81997E-01  1.78835E-01  5.42201E-01
  3.91999E-01  2.39512E-01  6.36718E-01
  3.07008E-01  2.92344E-01  6.05997E-01
  4.46909E-01 -6.95941E-02  4.52513E-01
  7.29401E-01  2.67638E-01  1.15377E-01
  1.05008E+00  3.48124E-01  2.09502E-01
  8.47737E-01  5.73596E-01  6.08356E-01
  5.68689E-01  7.43456E-01  6.64290E-01
  6.29585E-01  4.90904E-01  4.77302E-01
  3.29075E-01  2.52445E-01  3.33910E-01
  2.39758E-01  5.06309E-01  3.26331E-01
  2.99273E-01  3.82850E-01  3.20426E-01
  2.82678E-01  7.42533E-01  5.22054E-01
  1.74154E-01  8.44767E-01  2.75366E-01
  1.42715E-01  4.67816E-01  1.65409E-01
 -1.87224E-01  5.45006E-01  4.63880E-01
 -7.74609E-02  8.34888E-01  6.06288E-01
 -3.73976E-02  7.73839E-01  3.36249E-01
  4.92804E-02  4.70513E-01  4.18155E-01
  4.08037E-02  4.45194E-01  9.76738E-02
  2.12898E-01  3.72720E-01  7.32218E-02
  1.46061E-01  2.20419E-01  6.82331E-02
  2.20529E-01 -1.85134E-01  6.92678E-01
  1.60435E-01 -1.88142E-01  5.14126E-01
  4.42306E-02  1.35011E-01  4.92556E-01
  1.12692E-01 -4.04637E-01  8.35714E-01
 -1.21455E-01 -3.68504E-01  9.10878E-01
 -2.31098E-01 -6.63678E-01  9.22925E-01
  1.08007E-01 -1.34049E-01  7.05433E-01
  1.98487E-01 -9.62070E-02  8.13318E-01
  2.34218E-02 -2.39486E-01  8.45055E-01
  3.78585E-01 -2.50636E-01  6.79164E-02
  1.62038E-01 -1.35685E-01  1.37564E-01
  8.86308E-02 -2.06705E-01  1.37564E-01
  1.13029E+00  9.70239E-03  1.97254E+00
  6.75026E-01  2.90861E-01  2.05627E+00
  6.64120E-01  8.75486E-03  1.97937E+00
  3.43302E-01  8.84901E-02  2.31088E+00
  5.70605E-01 -2.03937E-01  2.45824E+00
  5.61149E-01  2.70928E-01  2.39880E+00
  8.47691E-01 -4.25216E-02  2.59552E+00
  3.76915E-01  1.41550E-01  9.07059E-01
  4.54799E-01 -1.19993E-01  1.08412E+00
  2.96647E-01 -1.26043E-01  1.09114E+00
  1.96495E-01  2.18625E-01  9.31151E-01
  4.35799E-01  3.20801E-01  9.10190E-01
  2.69810E-01  2.55291E-01  7.80109E-01
  6.62031E-01 -2.87113E-01  9.58768E-01
  4.54644E-01 -1.92125E-01  8.25025E-01
  4.30568E-01 -2.75049E-01  1.01182E+00
  5.93928E-01  1.73012E-01  9.22993E-01
  4.86751E-01 -1.22383E-01  9.77027E-01
  7.88810E-01  2.73848E-01  8.96334E-01
  7.30172E-01  3.07354E-01  1.20782E+00
  7.84508E-01  9.63373E-02  1.02807E+00
  6.14952E-01  7.36676E-02  1.00989E+00
 -1.17994E+00  8.91598E-01  7.64518E-01
  1.34142E+00 -1.05814E-01  1.05727E+00
  9.54322E-01 -8.81101E-02  1.27412E+00
  1.05370E+00  7.37328E-02  1.39826E+00
  9.13065E-01 -1.31268E-01  1.52644E+00
  9.52296E-01 -1.65886E-01  1.64961E+00
  1.06802E+00 -3.15061E-01  1.58473E+00
  9.75139E-01 -3.15414E-01  1.39851E+00
  9.10242E-01  7.01522E-02  1.59762E+00
  2.01902E+00  2.28381E-01  1.49569E+00
  2.07973E+00 -1.26328E-01  1.41919E+00
  1.25470E+00  2.00174E-01  1.74994E+00
  1.65144E+00 -5.71694E-01  1.76850E+00
  2.01818E+00 -3.44321E-01  1.60705E+00
  1.77857E+00 -1.48794E-01  1.50545E+00
  1.58576E+00  9.51179E-01  1.32269E+00
  1.05805E+00  6.22047E-01  1.36727E+00
  1.20612E+00  9.17343E-01  1.15380E+00
  1.08247E+00  3.54157E-01  1.56377E+00
  8.90884E-01 -4.19922E-02  1.54441E+00
  8.51494E-01 -4.82221E-02  1.49249E+00
  8.18224E-01 -2.99089E-02  1.42274E+00
  7.53741E-01 -7.85315E-02  1.48479E+00
  8.21384E-01 -1.70953E-01  1.50725E+00
  8.60033E-01 -7.48095E-04  1.53747E+00
  8.64082E-01  2.34527E-02  1.50450E+00
  8.37090E-01 -4.19587E-03  1.50271E+00
  8.11285E-01 -7.92547E-03  1.65820E+00
  9.07267E-01  1.43759E-01  1.35809E+00
  7.69295E-01  1.25814E-01  1.37152E+00
  7.55787E-01  1.02534E-01  1.46871E+00
  7.27608E-01 -2.28095E-01  1.21912E+00
  7.99847E-01  2.83089E-02  1.50315E+00
  7.77337E-01  2.96541E-02  1.57355E+00
  8.79005E-01  3.89509E-02  1.56155E+00
  8.11627E-01 -2.11329E-03  1.58484E+00
  8.05886E-01  1.07936E-01  1.53135E+00
  8.34397E-01  7.49767E-02  1.59056E+00
  8.42520E-01  5.11699E-02  1.52490E+00
  9.12730E-01  1.28931E-01  1.53146E+00
  8.61267E-01  4.25192E-02  1.44584E+00
  8.31638E-01  2.44084E-02  1.49555E+00
  1.13931E+00  2.73182E-01  8.30830E-01
  1.18039E+00  1.29364E-01  1.14414E+00
  1.27857E+00  5.66446E-01  1.11385E+00
  1.40069E+00  1.03191E-01  8.14578E-01
  1.27332E+00  9.66749E-01  7.27602E-01
  1.51010E+00 -3.06657E-01  8.45880E-01
  1.02807E+00 -9.81270E-01  9.78512E-01
  1.23145E+00 -8.06959E-01  4.77178E-01
  1.26767E+00 -6.01159E-01  9.08850E-01
  1.36317E+00 -6.90991E-01  1.34898E+00
  9.97822E-01 -2.70104E-01  8.17323E-01
  7.86921E-01 -9.14840E-02  8.32800E-01
  8.55606E-01 -9.47381E-02  5.50468E-01
  5.90033E-01  2.18713E-01  1.30299E+00
  6.64439E-01 -5.61677E-02  1.21406E+00
  7.78965E-01 -5.08152E-02  1.19389E+00
  5.51203E-01  8.72253E-02  1.47007E+00
  6.53421E-01  9.39481E-02  1.39745E+00
  7.17205E-01  7.10223E-02  1.28804E+00
  6.18442E-01  1.14625E-01  1.13939E+00
  7.84687E-01  1.36227E-01  1.21001E+00
  6.76166E-01  6.41229E-02  1.36423E+00
  7.57725E-01 -9.70362E-02  1.36603E+00
  1.00548E+00 -4.49308E-01  9.95861E-01
  7.54555E-01 -3.93655E-01  1.23713E+00
  6.15991E-01 -8.58656E-02  1.03767E+00
  7.83981E-01 -9.20137E-02  1.09733E+00
  8.24368E-01 -2.19756E-01  1.38022E+00
  7.63279E-01 -1.23909E-01  1.25193E+00
  9.01617E-01  3.43039E-01  1.13956E+00
  9.61549E-01  1.23302E-01  1.13075E+00
  8.74115E-01 -1.08014E-01  1.44664E+00
  4.09014E-01 -6.91407E-01  1.48861E+00
  7.40570E-01 -7.81670E-01  1.30981E+00
  7.10595E-01 -4.76932E-01  1.05073E+00
  1.42585E-01  1.97271E-01  1.47096E+00
  2.47624E-01  4.41318E-01  1.42748E+00
  3.45855E-01 -2.88645E-01  1.19291E+00
  4.43631E-01  2.59429E-01  1.30084E+00
  5.22617E-01 -1.37771E-01  1.31496E+00
  3.77553E-01  2.13406E-01  1.32057E+00
  5.08368E-01  4.13134E-01  1.25342E+00
  5.13258E-01 -1.78439E-01  1.20538E+00
  4.94946E-01  2.43051E-01  1.08922E+00
  5.33035E-01  6.42710E-02  1.21521E+00
  4.46188E-01  1.62519E-01  1.31126E+00
  4.08910E-01 -1.38588E-01  1.36385E+00
  4.93159E-01  6.31305E-02  1.34577E+00
  4.23479E-01  8.97690E-02  1.46016E+00
  6.01597E-01 -2.57211E-01  1.22688E+00
  2.81347E-01  1.01965E-01  1.33640E+00
 -4.27905E-01 -5.03786E-01  1.61337E+00
 -1.20995E-01  2.93618E-01  1.61544E+00
  3.59686E-01  1.02958E-01  1.60667E+00
  2.87685E-01  3.39157E-01  1.77624E+00
 -9.49900E-02 -5.58566E-02  1.52368E+00
  1.22725E-01 -2.60223E-01  1.55401E+00
  5.89583E-01  6.50467E-01  1.20190E+00
  3.41178E-01  6.06634E-01  1.04942E+00
  5.70562E-01  4.71374E-01  8.90448E-01
  1.03883E+00  7.95238E-01  1.81799E+00
  1.94789E-01  7.47206E-01  1.65284E+00
  4.20721E-01  9.39940E-01  1.21864E+00
  9.63456E-01  1.04008E+00  1.37165E+00
  8.07857E-01  1.24784E+00  1.54084E+00
  3.73278E-01  1.15798E-01  9.85606E-01
  3.74903E-01  8.51488E-02  1.06421E+00
  2.18185E-01  1.51463E-01  1.13213E+00
  4.19755E-01  2.01276E-01  1.14212E+00
  4.54674E-01  1.15750E-01  1.12378E+00
  2.97353E-01  1.09792E-01  1.12911E+00
  4.79091E-01  2.02741E-01  1.43915E+00
  3.19545E-01  2.87988E-01  1.41368E+00
  4.25920E-01  4.36107E-01  1.53535E+00
  5.04649E-01  7.49379E-01  1.60709E+00
  6.28496E-01  5.46360E-01  1.61582E+00
  7.02293E-01  1.03087E-01  1.83770E+00
  4.62193E-01  1.67477E-01  2.03697E+00
  4.27312E-01  8.21419E-02  1.76272E+00
  4.97711E-01  1.16875E-01  1.66861E+00
  5.91573E-01  2.47537E-02  1.71411E+00
  9.07446E-01 -1.51369E-01  2.01069E+00
  7.41655E-01 -1.18410E-01  1.87480E+00
  5.44982E-01 -3.25445E-01  2.08271E+00
  5.71204E-01 -2.04241E-01  1.79794E+00
  4.28786E-01 -6.23526E-02  2.06541E+00
  7.11531E-01  1.51113E-02  1.76301E+00
  6.33807E-01 -1.09682E-01  1.83899E+00
  7.74983E-01 -5.64340E-02  1.80086E+00
  7.52548E-01 -1.43905E-01  1.69287E+00
  5.09244E-01 -5.57256E-02  1.78110E+00
  5.18405E-01 -1.33599E-02  1.52010E+00
  5.51737E-01 -1.33599E-02  1.50049E+00
  5.83475E-01 -6.69732E-02  1.53237E+00
  5.51643E-01  3.76805E-02  1.52538E+00
  5.82500E-01  7.71838E-03  1.52375E+00
  6.31862E-01 -1.26836E-02  1.50593E+00
  6.01298E-01 -1.36418E-02  1.50468E+00
  6.91967E-01 -5.57183E-02  1.68393E+00
  6.43779E-01 -1.40783E-01  1.74154E+00
  6.12237E-01 -1.26835E-01  1.60404E+00
  6.41969E-01 -2.41040E-01  1.56292E+00
  7.28747E-01 -1.22118E-01  1.58274E+00
  6.78222E-01  1.80295E-01  1.76054E+00
  7.62340E-01  1.85010E-01  1.61882E+00
  6.55594E-01  1.22479E-01  1.63837E+00
 -1.45494E+00 -2.27386E-01  1.60149E+00
 -1.35574E+00 -1.34270E-01  1.36892E+00
 -1.49499E+00 -1.22256E-01  8.62222E-01
 -8.11005E-01 -5.00112E-01  1.70605E+00
 -5.98431E-01 -2.64012E-01  1.82783E+00
 -6.45470E-02 -3.65263E-01  4.01069E-01
 -5.30698E-01 -4.68592E-01  3.64484E-01
 -3.80641E-01 -3.12336E-01  4.22928E-01
 -1.08938E-01 -4.68342E-01  6.15440E-01
 -2.79245E-01 -6.82569E-01  3.85134E-01
 -6.70089E-02 -3.27746E-01  7.27236E-01
 -8.64453E-02  1.17890E-01  6.81854E-01
 -1.31799E-01  4.23752E-01  7.42742E-01
  8.22585E-01 -5.78673E-01  2.03697E+00
  8.38577E-01 -3.08005E-01  1.61756E+00
  1.21492E+00 -1.20308E-01  1.70752E+00
  1.11405E+00 -4.71414E-01  1.74581E+00
  8.13936E-01 -1.08551E-01  1.52944E+00
  7.79890E-01 -8.84906E-02  1.57825E+00
  8.01049E-01 -9.02023E-02  1.62555E+00
  7.90541E-01 -4.65541E-02  1.59167E+00
  9.84811E-01  1.76317E-08  1.58545E+00
  9.09682E-01 -1.40048E-01  1.78120E+00
  1.13951E+00 -1.09019E-01  1.47287E+00
  1.15795E+00  3.31527E-02  1.66435E+00
  1.01585E+00  2.34006E-02  1.48211E+00
  8.87621E-01  4.47722E-02  1.71619E+00
  8.92948E-01  2.03633E-01  1.81827E+00
  1.03789E+00 -7.28282E-02  1.89003E+00
  8.32444E-01  3.14178E-01  1.35604E+00
  7.24462E-01  1.05574E-02  1.50303E+00
  6.80954E-01  1.05574E-02  1.50072E+00
  7.37898E-01  5.39187E-02  1.52620E+00
  7.64210E-01 -7.68760E-03  1.49937E+00
  7.78873E-01  9.22459E-03  1.54637E+00
  7.94115E-01 -7.68760E-03  1.50442E+00
  7.73021E-01  1.51261E-02  1.50875E+00
  6.54307E-01 -4.40037E-02  1.61697E+00
  6.85454E-01 -8.07449E-02  1.50025E+00
  7.32711E-01  4.94165E-04  1.64685E+00
  6.72400E-01 -5.64365E-03  1.55241E+00
  6.79771E-01  4.77244E-02  1.60648E+00
  6.17741E-01  8.38507E-02  1.51270E+00
  7.13752E-01  5.07952E-03  1.56433E+00
  6.96523E-01 -4.80458E-02  1.59214E+00
  7.49809E-01 -3.41742E-02  1.53901E+00
  7.92968E-01 -3.49428E-02  1.53202E+00
  8.54712E-01 -4.44772E-02  1.58541E+00
 -6.99594E-01  1.73237E-01  2.32780E+00
 -7.27698E-01 -1.20047E-01  2.59956E+00
 -8.94338E-01  1.38840E-01  1.87608E+00
 -1.47129E+00  1.51993E-01  1.69342E+00
  3.83768E-01 -2.44725E-01  1.89430E+00
  3.71184E-01 -3.36453E-01  1.69690E+00
  7.64930E-01 -4.16435E-01  2.53998E+00
 -6.30629E-02  1.91558E-01  2.10228E+00
  1.99163E-01  2.98743E-01  2.14219E+00
  1.93588E-02  5.23345E-01  1.68310E+00
  1.78394E+00  3.22034E-02  1.75590E+00
  1.99364E+00  5.17276E-01  1.85236E+00
  1.67518E+00  4.77195E-01  2.12198E+00
  1.98195E+00  2.43274E-01  2.06020E+00
  1.59986E+00  7.01266E-01  1.60267E+00
 -9.58295E-02  8.96163E-01  1.73873E+00
 -3.37182E-01  9.19186E-01  2.27622E+00
 -5.63382E-01  1.05066E+00  1.87776E+00
 -1.46620E+00 -2.37203E-01  2.17646E+00
 -1.11795E+00 -8.80249E-01  2.14134E+00
 -9.97073E-01 -3.46307E-01  2.07769E+00
 -9.39672E-01 -1.94767E-01  2.36304E+00
 -1.19438E+00  2.84968E-02  2.38108E+00
 -3.03196E-01 -4.47282E-01  2.37145E+00
 -3.72908E-01 -1.15336E-01  2.74694E+00
 -7.35969E-01 -8.05929E-01  2.16797E+00
  6.80270E-01 -2.90577E-01  1.73204E+00
  7.79546E-01 -4.92618E-01  1.79020E+00
  1.66068E+00 -7.42180E-01  2.59144E+00
  2.02141E+00 -8.57078E-01  2.60929E+00
  1.34284E+00 -5.04441E-01  2.48851E+00
  1.87149E+00 -4.32933E-01  2.01699E+00
  1.66063E+00  2.62324E-02  2.23937E+00
  1.66011E+00 -4.16716E-01  2.31558E+00
  5.37462E-01 -7.57725E-01  2.13826E+00
  1.70890E+00 -6.29742E-01  6.23112E-01
  1.62843E+00 -9.15800E-01  8.85087E-01
  1.19713E+00  2.04442E-01  2.20172E+00
 -1.37274E+00 -9.27976E-01  5.51618E-01
 -6.12236E-01 -7.97787E-01  5.31462E-01
  4.46607E-01 -1.37940E-01  1.24148E+00
  5.52912E-01 -2.34745E-01  1.04618E+00
  8.57086E-01 -4.10091E-01  5.86733E-01
  4.87701E-01 -3.96096E-01  7.69524E-01
  6.03797E-01 -5.14964E-01  8.81079E-01
  4.77490E-01 -8.43686E-02  6.66868E-01
  4.54509E-01 -1.83829E-01  5.96159E-01
  1.33520E-01 -4.05021E-01  6.09436E-01
  3.58221E-01 -4.08167E-01  5.86299E-01
  3.30396E-01 -2.92288E-01  8.30187E-01
  4.97647E-01 -2.05078E-01  6.96249E-02
  5.06949E-01 -8.62942E-02  1.25379E-01
  1.51540E-01 -1.30983E-01  5.71738E-02
  3.63240E-01 -1.64188E-01  3.24149E-02
  6.22494E-01 -4.32895E-01  2.90214E-01
  3.05483E-01  1.13120E-01  1.34271E-01
  1.57067E-01  1.62985E-01  1.30959E-01
  8.97635E-02  8.40823E-02  2.80259E-01
  1.27437E-01  1.42108E-01  3.91952E-01
  2.56317E-01  1.81878E-01  3.08279E-01
  2.33605E-01  1.15659E-01  3.74167E-01
  1.26153E-01  2.20001E-01  2.99488E-01
  5.58621E-01  1.00730E-01  5.05547E-02
  5.00116E-01  8.24439E-02  9.26003E-02
  5.53441E-01  1.71899E-01  4.66619E-02
  4.71554E-01  9.88553E-02  4.40944E-02
  8.27904E-01 -5.22542E-01  1.40204E+00
  4.97886E-01 -4.46064E-01  1.43045E+00
  6.80218E-01 -1.51223E-01  1.44892E+00
  6.09571E-01 -3.44203E-01  1.45588E+00
  6.53413E-01 -1.48004E-01  1.35991E+00
  4.95477E-01 -1.54508E-01  1.47722E+00
  5.97729E-01 -1.65149E-01  1.44258E+00
  6.17275E-01 -6.80217E-02  1.43194E+00
  4.42560E-01 -2.79287E-01  1.47821E+00
  4.77281E-01 -1.24562E-01  1.54755E+00
  3.95415E-01 -1.39958E-01  1.62633E+00
  5.30728E-01 -2.36458E-01  1.31681E+00
  3.15337E-01  3.04094E-01  1.29632E+00
  4.40673E-01  1.01248E-01  1.33444E+00
  3.59775E-01 -1.08448E-01  1.28113E+00
  2.31489E-01  1.34004E-01  1.30044E+00
  4.88553E-01  4.28814E-02  1.49896E+00
  4.74102E-01  1.01845E-01  1.56601E+00
  5.26033E-01 -6.44295E-02  1.56697E+00
  4.89823E-01 -1.36593E-02  1.49728E+00
  4.45856E-01 -4.82676E-02  1.51892E+00
  5.17018E-01 -8.45212E-02  1.49760E+00
  2.65940E-01  6.64466E-03  1.68190E+00
  4.41303E-01 -7.99855E-02  1.66762E+00
  5.96949E-01 -9.86687E-03  1.64381E+00
  5.06594E-01  2.92364E-02  1.67537E+00
  3.56137E-01 -6.19209E-02  1.44069E+00
  3.69904E-01 -1.97863E-01  1.52978E+00
  4.73541E-01 -6.67407E-02  1.39534E+00
  5.01422E-01 -3.77604E-02  1.60770E+00
  3.99280E-01 -3.05963E-02  1.58268E+00
  5.14413E-01 -5.82526E-02  1.69960E+00
  1.20213E+00 -2.66866E-01  3.54651E-01
  1.20296E+00 -1.68957E-01  7.10979E-01
  3.61152E-01 -3.53649E-01  2.43099E-01
  7.68123E-01 -2.25455E-01  9.96390E-02
  5.68937E-01  1.55194E-01  1.63042E+00
  6.37764E-01  8.57828E-02  1.58518E+00
  5.63761E-01 -6.94883E-03  1.58934E+00
  5.71659E-01  9.42549E-02  1.58504E+00
  6.21682E-01  3.45733E-02  1.59367E+00
 -1.29234E-01 -3.50495E-01  5.28041E-01
 -2.48654E-01 -7.38587E-02  5.29480E-01
 -1.78827E-01 -1.24044E-01  4.50557E-01
 -6.24240E-01 -7.83171E-02  6.09752E-01
 -6.01957E-01 -2.95946E-01  4.79845E-01
 -5.63616E-01  6.09033E-01  4.06749E-01
 -2.28230E-03  7.09988E-01  1.58177E-01
  2.66428E-01  2.40433E-01  4.41992E-01
 -4.73250E-02 -2.26820E-01  5.17500E-01
  1.83856E-02 -9.72283E-02  5.35800E-01
  1.18602E-01 -8.53418E-02  2.81505E-01
  1.37526E-01  3.32867E-01  4.88690E-01
  1.12815E-02  2.65420E-01  5.27454E-01
  1.53346E-01  1.06865E-01  5.57825E-01
  2.00640E-01  2.18468E-01  6.44103E-01
  1.26152E-01 -2.68108E-01  6.16527E-01
 -4.45518E-01  6.24425E-02  1.05392E-01
 -3.72591E-01  6.62444E-02  1.54032E-01
 -3.01292E-01  1.18678E-01  1.47743E-01
 -4.39593E-01 -7.79177E-02  9.10467E-02
 -4.94382E-01 -1.21075E-01  3.48002E-02
 -5.51354E-01 -1.09641E-01  3.08858E-02
 -4.80102E-01 -1.95304E-01  8.75302E-02
 -5.14050E-01 -1.17447E-01  1.16908E-01
 -3.89243E-01 -1.78549E-01  3.36007E-02
 -4.56115E-01 -1.10315E-01  2.50924E-02
 -5.23706E-01  2.45823E-01  2.33977E-01
 -6.54093E-01  2.11381E-01  4.43011E-02
 -5.11963E-01  1.84407E-01  1.19839E-01
 -5.61602E-01  8.51683E-02  2.96091E-02
 -5.31018E-01  8.92400E-02  9.05384E-02
 -5.83804E-01 -3.18516E-03  2.20782E-02
 -6.24951E-01 -6.63464E-03  5.48392E-02
 -6.05048E-01 -3.80048E-02  3.16867E-02
 -5.91470E-01 -7.29207E-02  7.57941E-02
 -4.68177E-01  4.67634E-02  3.76608E-02
 -5.85606E-01 -3.41080E-01  2.17725E-01
 -4.56609E-01 -2.29957E-01  2.37746E-01
 -3.27204E-01 -1.08062E-01  2.58902E-01
  7.14506E-01 -4.67213E-02  2.16521E+00
  1.28010E+00 -8.70974E-02  2.22728E+00
  8.42089E-01 -3.71422E-01  2.30158E+00
 -1.51657E+00 -6.15198E-01  1.44931E+00
 -1.22777E+00 -6.96077E-01  1.86722E+00
 -1.23859E+00 -3.38074E-01  1.03841E+00
 -1.39058E+00 -8.90879E-01  1.16965E+00
 -2.85976E-01  1.29512E-01  5.93120E-01
 -4.27709E-01  1.78428E-01  3.98773E-01
 -2.61081E-01  3.77810E-02  4.94706E-01
 -3.37804E-01  7.29689E-02  4.09812E-01
 -2.72293E-01  6.37564E-02  3.19528E-01
 -1.74923E-01  8.06712E-02  4.50958E-01
 -3.41446E-01  1.81779E-01  2.72394E-01
 -1.53949E-01  2.00808E-01  2.50060E-01
 -2.50743E-01  2.69647E-01  2.14157E-01
 -2.15882E-02 -1.60467E-01  2.00725E-01
 -3.87653E-02  1.65064E-01  2.81354E-01
 -1.27040E-01  1.44980E-01  3.32038E-01
 -2.63237E-01  2.01282E-01  4.19989E-01
 -1.63208E-01  3.15103E-01  4.64639E-01
 -3.99763E-01  7.14970E-01  3.28298E-01
 -1.90283E-01  8.96625E-02  9.42078E-02
 -3.30245E-01  9.18563E-02  5.37351E-02
 -4.74303E-01  5.94255E-03  1.36210E-01
  2.03421E-01  2.49882E-01  1.52447E-01
  1.29706E-01  3.35836E-01  1.30779E-01
  3.05708E-01  2.08513E-01  1.07738E-01
  6.36705E-01  1.86643E-01  2.68772E-01
  6.28322E-01 -4.18130E-02  1.09333E-01
  6.72067E-01  2.72974E-02  3.27264E-02
  6.72325E-01 -1.07323E-01  2.28725E-01
  9.60529E-01  1.24658E-02  1.09524E-01
  7.89168E-01  1.19315E-01  8.27295E-02
  7.19092E-01 -3.04113E-02  1.33482E-01
  5.66010E-01  1.74507E-01  1.59691E-01
  6.30588E-01  9.75571E-02  1.22578E-01
  5.86832E-01  3.36442E-02  3.29715E-02
  6.54166E-01  9.08464E-02  4.34459E-01
  5.45008E-01  9.30877E-02  4.19674E-01
  6.46991E-01  2.69446E-01  5.93121E-01
  5.00932E-01  3.55644E-01  3.64089E-01
  3.22792E-01 -1.68489E-01  1.45485E-01
  4.45879E-01 -1.48076E-01  8.70632E-02
 -5.62090E-02  1.85436E-01  5.32353E-01
  2.82351E-01 -6.46155E-01  6.91881E-01
  2.60846E-01 -8.68691E-01  4.53073E-01
  2.68715E-01 -6.01052E-01  4.50601E-01
  1.13157E+00 -5.03024E-01  6.10420E-01
 -2.53320E-02 -2.21919E-01  3.56547E-01
 -7.90759E-02 -1.06229E-01  4.21075E-01
 -3.58810E-02 -2.39385E-01  4.21987E-02
 -1.09979E-01 -2.06696E-01  5.37455E-02
 -1.01610E-01 -1.38416E-01  5.12722E-02
  7.74297E-02 -9.19649E-02  1.23987E-01
  6.48994E-02  8.32529E-02  1.11433E-01
 -7.63729E-03  9.57202E-02  2.25854E-01
 -1.68896E-01 -2.79204E-01  3.34393E-01
 -3.08403E-01 -2.21252E-01  3.41353E-01
 -2.95294E-01 -2.05049E-01  2.36206E-01
 -1.12291E+00  3.35740E-01  2.09755E+00
 -1.49335E+00  5.31378E-01  2.18418E+00
 -1.52040E+00  2.07614E-01  2.27090E+00
 -2.53331E-01 -2.37790E-01  1.34178E-01
 -2.44018E-01 -3.29230E-01  1.81411E-01
 -1.33080E-01 -7.63722E-02  4.75651E-02
  1.23892E-01 -3.72938E-01  5.26570E-02
 -4.24119E-02  3.29936E-01  8.54135E-01
  1.03507E-02  1.82015E-01  6.77340E-01
  7.54989E-02  2.32276E-01  7.97738E-01
  1.98268E-01  1.20847E-01  7.38693E-01
  2.90597E-01  1.13365E-01  7.54587E-01
  3.71335E-01 -9.69848E-02  9.01566E-01
  2.55129E-01  1.96202E-01  1.03283E+00
  5.00197E-02  2.26723E-01  1.10756E+00
  1.42829E-01  7.14089E-02  1.21610E+00
 -2.39829E-01 -1.44360E-01  1.00409E+00
  6.97242E-03 -2.83370E-01  1.08344E+00
 -7.57606E-02 -2.17813E-01  9.62397E-01
 -2.60831E-01 -4.73355E-01  1.19534E+00
 -2.17485E-01  3.52706E-01  9.46642E-01
 -1.85042E-01  1.99365E-01  9.63322E-01
 -2.41156E-01  4.57079E-02  8.01051E-01
 -1.15669E-01  1.73783E-02  1.08973E+00
  4.23804E-02 -1.80582E-01  9.43017E-01
 -7.65184E-02  9.48910E-02  7.84194E-01
 -8.90818E-02  1.30980E-01  9.68915E-01
 -1.30916E-01 -1.23317E-02  8.73164E-01
  2.37737E-02  9.22625E-02  8.02809E-01
  3.86054E-02  7.25161E-02  9.06620E-01
  2.44608E-02 -8.46280E-02  8.17203E-01
 -7.28712E-02 -8.64402E-02  7.62295E-01
 -9.98306E-02 -2.45072E-01  6.43079E-01
 -3.99685E-01 -1.44498E-01  6.35936E-01
  1.45070E-01  8.33258E-02  8.24489E-01
  2.23166E-01  1.02540E-01  9.89194E-01
  1.62324E-01 -4.61901E-01  1.00439E+00
 -1.06316E-01 -6.05179E-01  1.36243E+00
  1.81614E-01 -7.07172E-01  1.23943E+00
  5.29479E-01 -5.30695E-01  1.73804E+00
  3.83044E-02 -3.52690E-01  2.06738E+00
  6.38122E-02 -4.62602E-01  1.82296E+00
 -1.81240E-01 -8.06974E-01  1.78219E+00
 -3.01905E-01 -5.48790E-01  2.08108E+00
  2.02897E-02  2.26402E-02  1.12925E+00
 -1.00476E-01 -1.24384E-01  1.10831E+00
 -3.70919E-01 -2.60828E-01  1.38550E+00
  1.39647E-01 -1.20564E-01  1.11844E+00
  1.52654E-01 -4.86472E-02  1.20903E+00
  1.90104E-01 -2.44933E-01  1.19850E+00
  1.84494E-01 -2.53394E-01  8.43051E-01
  2.97323E-01 -3.00244E-01  1.32719E+00
  3.10010E-01 -1.74118E-01  1.40997E+00
 -1.18757E-01 -2.75957E-01  1.39207E+00
  1.08028E-01 -4.80143E-01  1.35048E+00
  1.46591E-01  1.21712E-04  1.32424E+00
  2.57333E-01 -7.70350E-02  1.28488E+00
  1.36514E-01 -8.30692E-02  1.52449E+00
 -5.83432E-02 -5.98257E-02  1.32784E+00
  5.19350E-02 -1.19139E-01  1.39551E+00
 -4.43300E-02 -2.47687E-01  1.20054E+00
  1.25846E-01 -1.46472E-01  1.22311E+00
  2.05473E-01 -1.69273E-01  1.34001E+00
 -7.23874E-02 -2.35593E-01  1.64694E+00
  4.08060E-02 -1.25395E-01  1.75311E+00
  2.41925E-01 -1.91053E-01  1.65766E+00
  5.07087E-01  1.98246E-01  1.63420E+00
  4.43064E-01  1.45651E-02  1.59120E+00
  2.29644E-01 -1.25865E-02  1.51038E+00
  3.19266E-01  2.31322E-02  1.53024E+00
  3.51796E-01  7.19784E-02  1.48797E+00
  4.47284E-01  2.05635E-01  1.51158E+00
  3.14637E-01  3.06620E-01  1.60367E+00
  4.55123E-01 -1.20273E-02  1.50735E+00
  4.07316E-01 -3.08478E-02  1.51625E+00
  4.39505E-01  1.20274E-02  1.49668E+00
  3.94816E-01  5.37176E-02  1.51568E+00
 -5.18711E-01  6.63407E-01  2.66583E+00
 -1.01758E+00  3.63335E-01  2.43916E+00
 -9.65306E-01  6.55002E-01  2.15410E+00
  1.84007E-01  4.19170E-01  2.57062E+00
 -1.24316E+00  6.69983E-01  1.84828E+00
  1.39180E+00 -7.58230E-01  2.23272E+00
  1.41053E+00 -4.57454E-01  2.00946E+00
  2.14734E-01  4.87196E-01  8.34481E-01
 -1.22562E-02  6.26210E-01  1.02978E+00
 -4.82841E-01  6.76596E-01  7.15598E-01
 -3.77911E-01  6.48063E-01  1.03306E+00
  1.35624E-01  3.59143E-01  9.62245E-01
  2.09214E-01  6.51195E-01  1.46984E+00
  2.65681E-01  3.37326E-01  1.13242E+00
  1.19571E-01  2.20219E-01  1.33124E+00
 -2.68427E-01 -2.02187E-02  1.24531E+00
 -2.78022E-01  1.66024E-01  1.44950E+00
 -1.06924E-01  1.13501E-01  1.43419E+00
  1.86778E+00 -5.77144E-01  2.41456E+00
  1.01620E+00  1.53810E-02  3.62786E-01
  9.52652E-01 -1.68601E-01  9.80042E-02
  1.22560E+00  1.68257E-01  5.40778E-01
  1.30078E+00 -3.60353E-02  3.95806E-01
  7.12362E-01 -5.75750E-02  4.65900E-01
  9.76107E-01 -1.97224E-01  3.65322E-01
  7.65967E-01 -3.15594E-01  3.65720E-01
 -2.28265E-01  1.18115E-01  1.73099E-01
 -2.29488E-01 -1.59926E-01  2.51445E-01
 -1.76113E-01 -9.38907E-02  3.38632E-01
 -3.20263E-01 -1.09430E-01  3.75996E-01
  1.16929E+00 -7.88509E-01  1.50693E+00
  1.72587E+00 -6.55880E-01  1.20926E+00
  1.73110E+00 -4.15462E-01  1.53300E+00
  1.39652E+00 -1.52132E-01  1.41722E+00
  1.60453E+00 -8.28452E-01  1.53715E+00
  2.05277E+00 -1.16241E+00  1.83964E+00
 -5.09674E-01 -8.26354E-02  1.98086E-01
 -5.24812E-01  1.49936E-03  1.10852E-01
 -5.23058E-01 -1.53035E-02  1.91570E-01
 -4.02107E-01 -1.03798E-01  1.69928E-01
 -4.52724E-01 -3.31174E-01  1.09976E-01
 -4.01683E-01 -2.50095E-01  5.14359E-02
 -3.25163E-01 -2.44578E-01  9.64976E-02
 -3.51892E-01  4.60749E-01  1.84213E-01
 -4.60380E-01  5.23645E-01  1.17748E-01
 -1.59136E-01  4.18323E-01  2.69188E-01
 -5.33412E-01 -1.51150E-01  3.91470E-01
 -3.97989E-01 -1.47963E-02  3.81231E-01
 -4.99237E-01  4.33855E-02  2.76351E-01
 -3.61239E-01 -4.10365E-03  2.64354E-01
 -4.38437E-01 -1.10749E-02  3.17268E-01
 -4.03981E-01 -1.20666E-02  2.00979E-01
 -4.40912E-01  7.73487E-02  2.05465E-01
 -4.48993E-01 -3.07331E-02  2.36191E-01
 -3.39266E-01 -1.31004E-01  1.21800E-01
 -3.28159E-01 -8.56733E-02  8.74027E-02
 -3.81156E-02  3.03414E-01  2.83982E-01
 -8.39351E-02  4.78272E-01  1.85874E-01
 -9.08740E-02  1.39884E-01  2.27267E-01
 -4.58526E-02  1.52515E-01  1.19781E-01
 -3.74917E-02  9.61327E-02  8.23689E-02
 -6.82092E-01 -2.70138E-01  1.06463E-01
 -5.96115E-01 -3.78988E-01  6.40122E-02
 -5.42466E-01 -2.27369E-01  1.82091E-01
 -5.12521E-01 -2.33009E-01  3.53269E-02
 -7.74417E-01 -1.47097E-01  3.47648E-01
 -1.00266E+00 -3.26582E-01  5.16669E-01
 -6.76109E-01 -2.35188E-01  3.63501E-01
 -6.10309E-01 -2.03563E-01  9.50015E-02
 -6.43544E-01 -2.23018E-01  2.17787E-01
 -7.55921E-01 -2.65146E-01  2.87548E-01
 -9.54736E-01 -2.45720E-01  1.96982E-01
 -9.38563E-01 -4.99503E-01  1.02732E+00
 -1.09868E+00 -1.64791E-01  6.83999E-01
 -9.36857E-01  9.45488E-01  1.08864E+00
 -1.13204E+00  7.12143E-02  6.58570E-01
 -9.36043E-01  2.02531E-01  9.00874E-01
 -9.24197E-01  2.09895E-01  6.54910E-01
 -7.09121E-01  4.14508E-02  8.32641E-01
 -5.01235E-01  2.73710E-01  8.75356E-01
  1.38411E+00  6.84455E-01  2.20897E+00
 -1.02296E+00  2.79200E-01  1.35202E+00
 -7.84350E-01  1.60268E-01  1.21792E+00
 -5.06788E-01  5.76823E-02  1.24021E+00
 -8.33764E-01 -2.78027E-01  1.44657E+00
 -8.55950E-01 -1.24589E-01  1.24625E+00
 -1.06505E+00 -7.44768E-01  1.20830E+00
 -6.72590E-01 -3.89433E-01  1.28433E+00
 -1.11328E+00 -4.97433E-01  1.40195E+00
 -3.77026E-01 -3.49919E-01  7.18789E-01
 -6.90992E-01 -4.50683E-01  6.81847E-01
